ply
format ascii 1.0
element vertex 672
property float x
property float y
property float z
property uchar red
property uchar green
property uchar blue
end_header
-6.053131103515625 -0.5178675651550293 0.11629033088684082 128 128 128
-6.081674098968506 -0.516127347946167 0.17301833629608154 128 128 128
-5.845566272735596 -0.5271345376968384 0.2689845561981201 128 128 128
-5.7337799072265625 -0.531232476234436 -0.17398154735565186 128 128 128
-5.8658246994018555 0.030355513095855713 -0.029750943183898926 128 128 128
-5.028254508972168 0.5649875402450562 -1.845198631286621 128 128 128
-4.71625280380249 2.3786721229553223 -1.1262061595916748 128 128 128
-4.707622051239014 1.797764778137207 -1.1892504692077637 128 128 128
-4.809048175811768 2.2427053451538086 -0.5760746002197266 128 128 128
-5.476800441741943 -0.4944903552532196 -0.2274113893508911 128 128 128
-4.731028079986572 2.0613136291503906 -0.5692744255065918 128 128 128
-4.654612064361572 2.282552719116211 -1.072716236114502 128 128 128
-4.785222053527832 2.28971266746521 -1.1071505546569824 128 128 128
-4.62894344329834 2.2572717666625977 -0.5045061111450195 128 128 128
-5.914932727813721 -0.5429092645645142 0.04787623882293701 128 128 128
-4.784140110015869 1.6307793855667114 -1.0636849403381348 128 128 128
-6.07860803604126 -0.5632650852203369 0.1524338722229004 128 128 128
-5.562936305999756 0.04969798028469086 -0.47835326194763184 128 128 128
-6.192843437194824 -0.5598820447921753 -0.0620417594909668 128 128 128
-5.658868789672852 -0.05909939110279083 0.22896838188171387 128 128 128
-5.923425197601318 0.09106907248497009 -0.2383408546447754 128 128 128
-6.073984622955322 0.08465636521577835 -0.12788832187652588 128 128 128
-4.792175769805908 -0.5004327297210693 0.27964699268341064 128 128 128
-6.005311489105225 -0.1978524923324585 -0.18230986595153809 128 128 128
-6.173297882080078 0.04238195717334747 -0.13898825645446777 128 128 128
-5.409965991973877 0.19285444915294647 -1.1411523818969727 128 128 128
-5.9821953773498535 -0.3335118591785431 -0.21817636489868164 128 128 128
-6.009387493133545 -0.6199711561203003 0.2303018569946289 128 128 128
-6.063580513000488 -0.5481511354446411 -0.04750931262969971 128 128 128
-4.574423789978027 2.1673402786254883 -0.7065815925598145 128 128 128
-6.122368812561035 -0.5329995155334473 0.11078429222106934 128 128 128
-5.43083381652832 -0.5269017219543457 -0.09539902210235596 128 128 128
-5.434170246124268 -0.03728027641773224 -0.2774087190628052 128 128 128
-5.4203948974609375 -0.4883742034435272 -0.3935518264770508 128 128 128
-5.3685479164123535 0.4990887939929962 -1.5113577842712402 128 128 128
-5.601997375488281 0.047897711396217346 -0.06601643562316895 128 128 128
-5.539645671844482 0.030188754200935364 0.18580257892608643 128 128 128
-5.586144924163818 -0.25504082441329956 -0.08138322830200195 128 128 128
-6.001138687133789 -0.1343827247619629 -0.16826295852661133 128 128 128
-5.578807830810547 0.25171685218811035 -0.20993554592132568 128 128 128
-5.607879161834717 0.052184268832206726 -0.32880091667175293 128 128 128
-5.780817985534668 -0.0403774231672287 0.3635650873184204 128 128 128
-6.00739860534668 -0.5357917547225952 0.10339009761810303 128 128 128
-6.095293998718262 -0.4905308783054352 -0.05416607856750488 128 128 128
-5.368750095367432 0.14158576726913452 -1.4089834690093994 128 128 128
-5.599263668060303 -0.48262152075767517 -0.22117018699645996 128 128 128
-5.2498064041137695 -0.5023248195648193 -0.17674577236175537 128 128 128
-5.746212959289551 0.019460603594779968 -0.3872518539428711 128 128 128
-5.837662696838379 -0.3733462989330292 -0.19708013534545898 128 128 128
-6.010448455810547 -0.23392429947853088 -0.21607446670532227 128 128 128
-6.118260860443115 -0.5293841361999512 0.5278655290603638 128 128 128
-5.9178032875061035 -0.5312557220458984 0.16230106353759766 128 128 128
-6.138157844543457 -0.49786755442619324 0.08680760860443115 128 128 128
-5.618124485015869 -0.5043909549713135 -0.020235657691955566 128 128 128
-5.770827770233154 -0.5058211088180542 0.1372436285018921 128 128 128
-5.381631851196289 0.39943164587020874 -1.4187264442443848 128 128 128
-6.4042205810546875 -0.6135387420654297 -0.18091678619384766 128 128 128
-5.575085163116455 -0.5526281595230103 -0.21155405044555664 128 128 128
-5.536561965942383 -0.4912625253200531 -0.10001552104949951 128 128 128
-6.460131645202637 -0.6002769470214844 -0.2166738510131836 128 128 128
-5.571078300476074 -0.021723240613937378 0.2548173666000366 128 128 128
-5.4546308517456055 -0.5092828273773193 0.10219371318817139 128 128 128
-4.846681594848633 0.4095378518104553 -1.2497916221618652 128 128 128
-5.900393962860107 -0.30526432394981384 0.6127458810806274 128 128 128
-4.879812240600586 2.313897132873535 -1.2626543045043945 128 128 128
-4.994292259216309 2.3761682510375977 -0.6298427581787109 128 128 128
-5.851153373718262 -0.5178500413894653 0.35579895973205566 128 128 128
-5.356449604034424 0.7685773372650146 -1.460514783859253 128 128 128
-5.252519607543945 0.8486804962158203 -1.5410552024841309 128 128 128
-6.050492286682129 -0.48441067337989807 0.17550182342529297 128 128 128
-6.08299446105957 -0.5216687917709351 0.1665499210357666 128 128 128
-5.847849369049072 -0.49680599570274353 0.31941962242126465 128 128 128
-5.739698886871338 -0.49389925599098206 -0.10290026664733887 128 128 128
-5.866126537322998 0.0494818240404129 0.0271531343460083 128 128 128
-5.0589599609375 0.5825524926185608 -1.6673660278320312 128 128 128
-4.723505020141602 2.3692874908447266 -1.102538824081421 128 128 128
-4.700851917266846 1.7968961000442505 -1.232978343963623 128 128 128
-4.765303611755371 2.2935054302215576 -0.7100920677185059 128 128 128
-5.478440761566162 -0.49219295382499695 -0.22032511234283447 128 128 128
-4.640680313110352 2.146571636199951 -0.8227527141571045 128 128 128
-4.532405376434326 2.351167917251587 -0.7705309391021729 128 128 128
-5.915187835693359 -0.45962896943092346 0.1889503002166748 128 128 128
-4.738067626953125 1.655490756034851 -1.2308847904205322 128 128 128
-6.075418949127197 -0.5342299938201904 0.19849765300750732 128 128 128
-5.55601692199707 0.025119170546531677 -0.5604617595672607 128 128 128
-6.181267261505127 -0.49348047375679016 0.05500912666320801 128 128 128
-5.923443794250488 0.10987254977226257 -0.17447364330291748 128 128 128
-6.069712162017822 0.1098247691988945 -0.04704594612121582 128 128 128
-4.778625965118408 -0.5195642709732056 0.2342362403869629 128 128 128
-6.166160583496094 0.07213247567415237 -0.0533602237701416 128 128 128
-5.978549957275391 -0.2802233397960663 -0.09870052337646484 128 128 128
-6.831995487213135 -0.4383625090122223 0.11101913452148438 128 128 128
-5.22189998626709 -0.5156766176223755 -0.8681368827819824 128 128 128
-5.994296073913574 -0.48923566937446594 0.44699060916900635 128 128 128
-6.058748245239258 -0.4951869547367096 0.04622697830200195 128 128 128
-4.561539649963379 2.1762537956237793 -0.7416484355926514 128 128 128
-6.117517948150635 -0.4929269850254059 0.17927002906799316 128 128 128
-5.436019420623779 -0.5111606121063232 -0.0525822639465332 128 128 128
-5.424302577972412 -0.4769321382045746 -0.3696002960205078 128 128 128
-5.370290756225586 0.5013145208358765 -1.493037223815918 128 128 128
-5.601853370666504 0.04785631597042084 -0.0673990249633789 128 128 128
-5.539382457733154 0.02920582890510559 0.1825648546218872 128 128 128
-5.584290504455566 -0.26175811886787415 -0.0966031551361084 128 128 128
-5.999777317047119 -0.1010279655456543 -0.08279561996459961 128 128 128
-5.577075481414795 0.24755266308784485 -0.22814953327178955 128 128 128
-5.622137069702148 0.0944826751947403 -0.19369947910308838 128 128 128
-5.782298564910889 -0.0367712527513504 0.37120962142944336 128 128 128
-6.00717306137085 -0.5140901803970337 0.14054501056671143 128 128 128
-6.092933177947998 -0.46188464760780334 -0.0007134675979614258 128 128 128
-5.372567653656006 0.14780470728874207 -1.3795325756072998 128 128 128
-5.6024041175842285 -0.4697258174419403 -0.19568026065826416 128 128 128
-5.257645606994629 -0.4847501218318939 -0.14274883270263672 128 128 128
-5.748932361602783 0.03345771133899689 -0.3435037136077881 128 128 128
-5.840449810028076 -0.3289250433444977 -0.10213279724121094 128 128 128
-6.009779930114746 -0.22396767139434814 -0.19206488132476807 128 128 128
-5.646289825439453 0.20766988396644592 -0.09528017044067383 128 128 128
-5.6966938972473145 -0.47460809350013733 0.06504082679748535 128 128 128
-5.800999164581299 0.022777855396270752 0.007612109184265137 128 128 128
-5.984205722808838 -0.4079262912273407 -0.13690650463104248 128 128 128
-5.915487766265869 -0.5200984477996826 0.18109416961669922 128 128 128
-6.131651401519775 -0.46549251675605774 0.14539146423339844 128 128 128
-5.621118068695068 -0.4776129424571991 0.02685856819152832 128 128 128
-5.771241188049316 -0.477584570646286 0.18811678886413574 128 128 128
-5.582216739654541 -0.5204038619995117 -0.15117502212524414 128 128 128
-5.536602973937988 -0.49150219559669495 -0.09855496883392334 128 128 128
-6.45302677154541 -0.575732946395874 -0.17824804782867432 128 128 128
-5.572356700897217 -0.020412832498550415 0.25744354724884033 128 128 128
-5.45759916305542 -0.5007898807525635 0.11587250232696533 128 128 128
-5.061686992645264 2.2661259174346924 -0.3720231056213379 128 128 128
-5.8510260581970215 -0.48971322178840637 0.4006749391555786 128 128 128
-6.0511274337768555 -0.4849327504634857 0.1734786033630371 128 128 128
-5.847154140472412 -0.46540549397468567 0.3695584535598755 128 128 128
-5.742340564727783 -0.44778355956077576 -0.02078258991241455 128 128 128
-5.866705417633057 0.051822125911712646 0.029285073280334473 128 128 128
-5.479238033294678 -0.493246465921402 -0.22192978858947754 128 128 128
-6.0698418617248535 -0.501051664352417 0.25301992893218994 128 128 128
-5.922331809997559 0.12305707484483719 -0.12550854682922363 128 128 128
-6.070653438568115 0.10976636409759521 -0.04622352123260498 128 128 128
-4.782670974731445 -0.5152055025100708 0.23698198795318604 128 128 128
-6.160677433013916 0.08348718285560608 -0.015804767608642578 128 128 128
-5.979902267456055 -0.28776901960372925 -0.11464393138885498 128 128 128
-5.994378566741943 -0.48571106791496277 0.45412731170654297 128 128 128
-6.057631015777588 -0.48426148295402527 0.06430709362030029 128 128 128
-6.109103679656982 -0.45145294070243835 0.2520890235900879 128 128 128
-5.443669319152832 -0.4903316795825958 -0.028787732124328613 128 128 128
-5.581964015960693 -0.28305208683013916 -0.1563892364501953 128 128 128
-5.989208221435547 -0.036111608147621155 0.0785517692565918 128 128 128
-5.5766472816467285 0.24323897063732147 -0.2436922788619995 128 128 128
-5.633169174194336 0.14254775643348694 -0.040442705154418945 128 128 128
-5.782535552978516 -0.045816630125045776 0.3501220941543579 128 128 128
-6.004326343536377 -0.4778805077075958 0.19838058948516846 128 128 128
-6.0936279296875 -0.46816524863243103 -0.010634064674377441 128 128 128
-5.600874423980713 -0.48693546652793884 -0.23152077198028564 128 128 128
-5.259522914886475 -0.48027607798576355 -0.13406872749328613 128 128 128
-5.7500152587890625 0.040999576449394226 -0.318800687789917 128 128 128
-5.8408002853393555 -0.3204876482486725 -0.08357501029968262 128 128 128
-6.008828639984131 -0.21471837162971497 -0.16954123973846436 128 128 128
-5.646289825439453 0.20766988396644592 -0.09528017044067383 128 128 128
-5.6966938972473145 -0.47460809350013733 0.06504082679748535 128 128 128
-5.801536560058594 0.028655394911766052 0.024199843406677246 128 128 128
-5.984205722808838 -0.4079262912273407 -0.13690650463104248 128 128 128
-5.81365966796875 -0.478486031293869 0.30789685249328613 128 128 128
-6.315672874450684 0.06987884640693665 -0.11560773849487305 128 128 128
-5.917051792144775 -0.5177996158599854 0.18495070934295654 128 128 128
-6.12440299987793 -0.428292840719223 0.21007871627807617 128 128 128
-5.619570255279541 -0.4931941330432892 0.0016846656799316406 128 128 128
-5.574025630950928 -0.012059599161148071 0.2800898551940918 128 128 128
-5.456585884094238 -0.5043982267379761 0.11417162418365479 128 128 128
-5.217720031738281 1.996268391609192 0.30795419216156006 128 128 128
-5.868547439575195 0.02792559564113617 -0.033770203590393066 128 128 128
-5.924341678619385 0.110157810151577 -0.1535954475402832 128 128 128
-6.168194770812988 0.06299662590026855 -0.07498180866241455 128 128 128
-6.109130382537842 -0.4453432857990265 0.2617313861846924 128 128 128
-5.454539775848389 -0.4324145019054413 0.09137880802154541 128 128 128
-5.576598644256592 -0.30703482031822205 -0.19208741188049316 128 128 128
-5.98881196975708 -0.03158450126647949 0.08853304386138916 128 128 128
-5.577549934387207 0.24246090650558472 -0.24932348728179932 128 128 128
-5.751301288604736 0.06285924464464188 -0.25006377696990967 128 128 128
-6.009085178375244 -0.21837234497070312 -0.1803983449935913 128 128 128
-5.647134304046631 0.2101333886384964 -0.0832061767578125 128 128 128
-5.696034908294678 -0.4836178123950958 0.04955947399139404 128 128 128
-5.983220100402832 -0.40249165892601013 -0.12839853763580322 128 128 128
-5.81434965133667 -0.4535149037837982 0.34808599948883057 128 128 128
-5.500629901885986 0.28362125158309937 -0.05191302299499512 128 128 128
-5.600829124450684 0.03600682318210602 -0.07713162899017334 128 128 128
-6.312363624572754 0.0768934041261673 -0.09509336948394775 128 128 128
-5.446876525878906 -0.48860570788383484 -0.10207724571228027 128 128 128
-5.908443450927734 -0.11179137229919434 0.11017394065856934 128 128 128
-5.651076316833496 0.19965660572052002 0.03099215030670166 128 128 128
-6.039529323577881 -0.41395577788352966 0.2917402982711792 128 128 128
-5.917884826660156 -0.5095374584197998 0.19912803173065186 128 128 128
-6.120362758636475 -0.40916886925697327 0.24067604541778564 128 128 128
-5.618269443511963 -0.5062451362609863 -0.02067089080810547 128 128 128
-5.572900772094727 -0.017525285482406616 0.26567888259887695 128 128 128
-5.458607196807861 -0.4888879954814911 0.14147913455963135 128 128 128
-5.217720031738281 1.996268391609192 0.30795419216156006 128 128 128
-5.866980075836182 0.03918628394603729 -0.002173781394958496 128 128 128
-5.91957950592041 0.1322619915008545 -0.08433759212493896 128 128 128
-4.781047821044922 -0.5201715230941772 0.2378908395767212 128 128 128
-6.167917251586914 0.065078005194664 -0.06981301307678223 128 128 128
-6.105929851531982 -0.4290755093097687 0.2873401641845703 128 128 128
-5.444639682769775 -0.47801801562309265 0.010070085525512695 128 128 128
-5.553803443908691 -0.4509600102901459 -0.5012919902801514 128 128 128
-5.994042873382568 -0.05483934283256531 0.028109431266784668 128 128 128
-5.585247039794922 0.27691933512687683 -0.11896264553070068 128 128 128
-5.751184463500977 0.06427145004272461 -0.24651896953582764 128 128 128
-5.649106502532959 0.22503797709941864 -0.031036972999572754 128 128 128
-5.69608211517334 -0.49625495076179504 0.024526476860046387 128 128 128
-5.985483169555664 -0.4163677990436554 -0.15806090831756592 128 128 128
-5.812485218048096 -0.4357036054134369 0.3775293827056885 128 128 128
-5.500629901885986 0.28362125158309937 -0.05191302299499512 128 128 128
-5.606479644775391 0.06635959446430206 -0.005663275718688965 128 128 128
-6.33224630355835 0.037627264857292175 -0.1983093023300171 128 128 128
-5.446876525878906 -0.48860570788383484 -0.10207724571228027 128 128 128
-5.554022789001465 0.0038415491580963135 -0.6199355125427246 128 128 128
-5.908937931060791 -0.11954018473625183 0.09210312366485596 128 128 128
-5.651076316833496 0.19965660572052002 0.03099215030670166 128 128 128
-6.039529323577881 -0.41395577788352966 0.2917402982711792 128 128 128
-5.45470666885376 -0.052605897188186646 -0.20366036891937256 128 128 128
-5.487092018127441 -0.5179941654205322 -0.15144717693328857 128 128 128
-5.756382465362549 -0.46979209780693054 0.13795554637908936 128 128 128
-5.6117730140686035 0.034043654799461365 0.24011218547821045 128 128 128
-6.068559169769287 -0.06361725926399231 -0.18871963024139404 128 128 128
-5.518012523651123 -0.5884956121444702 0.04295468330383301 128 128 128
-6.175455570220947 -0.4657122790813446 0.11072134971618652 128 128 128
-5.769922256469727 -0.4707535207271576 0.19673824310302734 128 128 128
-5.776805400848389 -0.5069330930709839 0.3928694725036621 128 128 128
-5.914443016052246 -0.4934000074863434 0.12746679782867432 128 128 128
-6.085430145263672 -0.45408400893211365 0.022397637367248535 128 128 128
-5.911502361297607 -0.45945289731025696 0.2837599515914917 128 128 128
-6.121450424194336 -0.42429307103157043 0.2178492546081543 128 128 128
-5.617403030395508 -0.5248614549636841 -0.05333828926086426 128 128 128
-5.565884113311768 -0.057180583477020264 0.17474162578582764 128 128 128
-5.451166152954102 -0.5314954519271851 0.06847894191741943 128 128 128
-5.3471293449401855 0.762984037399292 -1.5258469581604004 128 128 128
-5.870973587036133 -0.004208400845527649 -0.11190676689147949 128 128 128
-6.105641841888428 -0.41032692790031433 0.18124473094940186 128 128 128
-5.926280498504639 0.09467197209596634 -0.2040727138519287 128 128 128
-4.781047821044922 -0.5201715230941772 0.2378908395767212 128 128 128
-6.173917293548584 0.05847131460905075 -0.08826255798339844 128 128 128
-6.102932929992676 -0.4252394139766693 0.295274019241333 128 128 128
-5.439384460449219 -0.499440461397171 -0.030023932456970215 128 128 128
-5.373876094818115 0.5091549158096313 -1.4264216423034668 128 128 128
-5.553803443908691 -0.4509600102901459 -0.5012919902801514 128 128 128
-5.99124813079834 -0.04526400566101074 0.046726107597351074 128 128 128
-5.583840847015381 0.27106648683547974 -0.14332664012908936 128 128 128
-5.36555814743042 0.14127488434314728 -1.4076647758483887 128 128 128
-5.6459527015686035 0.20412388443946838 -0.09783220291137695 128 128 128
-5.695713043212891 -0.4943072497844696 0.02624690532684326 128 128 128
-5.989593029022217 -0.4407874643802643 -0.205666184425354 128 128 128
-5.365053653717041 0.6191527843475342 -1.5584385395050049 128 128 128
-5.4874420166015625 0.2481851577758789 -0.1762256622314453 128 128 128
-5.434850215911865 -0.5453325510025024 -0.20460641384124756 128 128 128
-5.554022789001465 0.0038415491580963135 -0.6199355125427246 128 128 128
-5.911640167236328 -0.15341264009475708 0.0269697904586792 128 128 128
-5.64865255355835 0.18961365520954132 3.063678741455078e-05 128 128 128
-6.041932582855225 -0.4273153245449066 0.26925575733184814 128 128 128
-5.45470666885376 -0.052605897188186646 -0.20366036891937256 128 128 128
-5.487092018127441 -0.5179941654205322 -0.15144717693328857 128 128 128
-5.756382465362549 -0.46979209780693054 0.13795554637908936 128 128 128
-5.361794948577881 0.3604699969291687 -1.4434850215911865 128 128 128
-5.6117730140686035 0.034043654799461365 0.24011218547821045 128 128 128
-5.173144817352295 -0.5261441469192505 -0.9940812587738037 128 128 128
-6.068559169769287 -0.06361725926399231 -0.18871963024139404 128 128 128
-5.518012523651123 -0.5884956121444702 0.04295468330383301 128 128 128
-5.572899341583252 -0.5794540643692017 -0.263960599899292 128 128 128
-6.175455570220947 -0.4657122790813446 0.11072134971618652 128 128 128
-5.744430065155029 -0.5513525009155273 -0.19603288173675537 128 128 128
-5.241149425506592 -0.49967750906944275 -0.9512302875518799 128 128 128
-5.530628681182861 -0.4995022714138031 -0.22044897079467773 128 128 128
-5.628583908081055 -0.48690369725227356 -0.21221327781677246 128 128 128
-5.769922256469727 -0.4707535207271576 0.19673824310302734 128 128 128
-5.776805400848389 -0.5069330930709839 0.3928694725036621 128 128 128
-5.914443016052246 -0.4934000074863434 0.12746679782867432 128 128 128
-6.085430145263672 -0.45408400893211365 0.022397637367248535 128 128 128
-5.36057186126709 0.9636021852493286 -1.3096754550933838 128 128 128
-5.617581844329834 -0.05750228464603424 0.2395991086959839 128 128 128
-5.7865095138549805 -0.4662460386753082 0.28074586391448975 128 128 128
-5.80458927154541 -0.04480259120464325 -0.1501452922821045 128 128 128
-5.870673179626465 0.04750990867614746 -0.4500315189361572 128 128 128
-5.746422290802002 -0.5606002807617188 0.1184229850769043 128 128 128
-5.8417134284973145 -0.28358912467956543 -0.03319871425628662 128 128 128
-5.580811500549316 -0.07476142048835754 0.21181881427764893 128 128 128
-5.856104373931885 -0.008269175887107849 -0.3748133182525635 128 128 128
-5.526033878326416 -0.5091058015823364 0.18070101737976074 128 128 128
-6.00890588760376 -0.4650566875934601 -0.22485017776489258 128 128 128
-6.0916218757629395 0.05319112539291382 -0.21209120750427246 128 128 128
-5.632611274719238 -0.012716710567474365 0.25555646419525146 128 128 128
-5.695189476013184 0.2129439115524292 -0.37300753593444824 128 128 128
-5.999325275421143 -0.44906195998191833 0.25018608570098877 128 128 128
-5.591120719909668 -0.5043383836746216 -0.13221526145935059 128 128 128
-5.607953071594238 -0.431422621011734 -0.12872731685638428 128 128 128
-5.752490520477295 -0.12416064739227295 0.12552237510681152 128 128 128
-5.911990642547607 -0.49696841835975647 0.22676575183868408 128 128 128
-5.910439491271973 0.05906270444393158 0.44089508056640625 128 128 128
-6.127484321594238 -0.445136159658432 0.1844099760055542 128 128 128
-5.623210906982422 -0.45656248927116394 0.06196463108062744 128 128 128
-5.564406871795654 -0.0748906135559082 0.1340653896331787 128 128 128
-5.446312427520752 -0.5603863000869751 0.023296236991882324 128 128 128
-4.800852298736572 0.3755077123641968 -1.4505951404571533 128 128 128
-5.336159706115723 0.7539505958557129 -1.6645112037658691 128 128 128
-5.225804805755615 0.8415387868881226 -1.7484700679779053 128 128 128
-5.870703220367432 -0.004268079996109009 -0.10941779613494873 128 128 128
-4.708898067474365 2.3820509910583496 -1.1396210193634033 128 128 128
-4.525068283081055 2.356518030166626 -0.7668356895446777 128 128 128
-4.678147792816162 1.6900237798690796 -1.4615943431854248 128 128 128
-6.112303733825684 -0.43898287415504456 0.1367734670639038 128 128 128
-5.927759170532227 0.08986084163188934 -0.22394323348999023 128 128 128
-4.753506660461426 -0.5669968128204346 0.16782963275909424 128 128 128
-3.9492669105529785 0.5546004772186279 -1.0567231178283691 128 128 128
-4.448305606842041 2.281567335128784 -1.0611076354980469 128 128 128
-6.108968257904053 -0.4473801553249359 0.2615997791290283 128 128 128
-5.4344587326049805 -0.5342950820922852 -0.09436416625976562 128 128 128
-5.372198104858398 0.506898045539856 -1.444169282913208 128 128 128
-5.556394577026367 -0.4761680066585541 -0.5419626235961914 128 128 128
-5.994136333465576 -0.05093827843666077 0.030727744102478027 128 128 128
-5.09516716003418 0.7406693696975708 -1.9169230461120605 128 128 128
-5.581308364868164 0.25573521852493286 -0.19057023525238037 128 128 128
-5.355498790740967 0.11742842942476273 -1.5173170566558838 128 128 128
-5.642920970916748 0.1737413853406906 -0.1906522512435913 128 128 128
-5.696132659912109 -0.5275135040283203 -0.028258919715881348 128 128 128
-5.991272449493408 -0.44707992672920227 -0.21304094791412354 128 128 128
-5.357148170471191 0.6125287413597107 -1.654515027999878 128 128 128
-5.485921382904053 0.23637256026268005 -0.1995227336883545 128 128 128
-3.895500659942627 1.656351923942566 -1.063037633895874 128 128 128
-5.433746337890625 -0.5548336505889893 -0.22140586376190186 128 128 128
-4.455038070678711 2.4904801845550537 -1.7089660167694092 128 128 128
-5.644784927368164 0.1446245163679123 -0.13733041286468506 128 128 128
-6.047455310821533 -0.4533943831920624 0.22964775562286377 128 128 128
-5.451606750488281 -0.06569968163967133 -0.23743486404418945 128 128 128
-5.482641696929932 -0.5430428981781006 -0.19303643703460693 128 128 128
-5.758762359619141 -0.534337043762207 0.03696894645690918 128 128 128
-5.358480453491211 0.3581016957759857 -1.4850399494171143 128 128 128
-5.609426498413086 -0.029398113489151 0.08231353759765625 128 128 128
-5.187703609466553 -0.47895190119743347 -0.876643180847168 128 128 128
-4.831151485443115 0.6068633794784546 -1.9134142398834229 128 128 128
-6.123239040374756 -0.21495378017425537 -0.5669753551483154 128 128 128
-5.196009635925293 0.9431697130203247 -1.9311556816101074 128 128 128
-5.570872783660889 -0.5984933376312256 -0.2987746000289917 128 128 128
-6.166092872619629 -0.43262115120887756 0.16729629039764404 128 128 128
-5.74469518661499 -0.5316938161849976 -0.16071951389312744 128 128 128
-5.233148097991943 -0.523561954498291 -1.0070302486419678 128 128 128
-5.527054786682129 -0.5238741636276245 -0.2661803960800171 128 128 128
-5.6262593269348145 -0.5146141052246094 -0.26452136039733887 128 128 128
-5.770279407501221 -0.5035467147827148 0.1432410478591919 128 128 128
-5.7765984535217285 -0.4890013039112091 0.4189337491989136 128 128 128
-5.912816524505615 -0.4785037934780121 0.15186583995819092 128 128 128
-6.080501556396484 -0.4325723350048065 0.06028294563293457 128 128 128
-5.351624488830566 0.9618319272994995 -1.3986835479736328 128 128 128
-3.9615674018859863 0.3003578186035156 -1.1326005458831787 128 128 128
-5.61586332321167 -0.07308259606361389 0.2059534788131714 128 128 128
-5.787222862243652 -0.48982957005500793 0.24392616748809814 128 128 128
-5.804697036743164 -0.04612767696380615 -0.15416419506072998 128 128 128
-5.870650291442871 0.0475640594959259 -0.4507102966308594 128 128 128
-5.74642276763916 -0.5702947378158569 0.10337162017822266 128 128 128
-5.840485095977783 -0.2679475247859955 -0.0009167194366455078 128 128 128
-5.178854465484619 0.5647441148757935 -1.4516334533691406 128 128 128
-5.246118068695068 1.0487335920333862 -1.7485153675079346 128 128 128
-5.578638076782227 -0.0906268060207367 0.17807340621948242 128 128 128
-5.531750202178955 1.1950758695602417 -1.2004146575927734 128 128 128
-5.857134819030762 -0.01934260129928589 -0.40579867362976074 128 128 128
-5.523370742797852 -0.5287752151489258 0.15013527870178223 128 128 128
-6.0072126388549805 -0.4557912051677704 -0.20727407932281494 128 128 128
-6.093950271606445 0.046118542551994324 -0.23212206363677979 128 128 128
-5.1910481452941895 -0.6547650098800659 -1.175107479095459 128 128 128
-5.6314897537231445 -0.02521897852420807 0.22851788997650146 128 128 128
-5.695260524749756 0.21487243473529816 -0.36618494987487793 128 128 128
-5.99989128112793 -0.4518449008464813 0.2456521987915039 128 128 128
-5.5305070877075195 -0.5428500175476074 -0.18670451641082764 128 128 128
-5.590813159942627 -0.5087195634841919 -0.1401824951171875 128 128 128
-5.604681491851807 -0.47361311316490173 -0.20709288120269775 128 128 128
-5.673438549041748 0.09750799834728241 -0.5973773002624512 128 128 128
-5.75240421295166 -0.12822678685188293 0.1179344654083252 128 128 128
-5.911962985992432 -0.4984278976917267 0.2254638671875 128 128 128
-5.563934803009033 -0.03379848599433899 -0.19747412204742432 128 128 128
-5.943637847900391 -0.4686569273471832 0.13860678672790527 128 128 128
-5.911197662353516 0.054486215114593506 0.43203115463256836 128 128 128
-5.9843220710754395 -0.0867236852645874 0.07038640975952148 128 128 128
-6.155120372772217 -0.43497374653816223 0.10220158100128174 128 128 128
-5.613242149353027 0.26344797015190125 -0.36679553985595703 128 128 128
-5.750231742858887 0.016605302691459656 -0.36191534996032715 128 128 128
-5.352803707122803 -0.5270501375198364 -0.17375969886779785 128 128 128
-5.39410924911499 -0.5243990421295166 -0.1665792465209961 128 128 128
-5.61637544631958 -0.5622665882110596 -0.12020516395568848 128 128 128
-5.655173301696777 -0.40957531332969666 0.11275076866149902 128 128 128
-5.817807197570801 -0.484776109457016 0.2997314929962158 128 128 128
-5.862656116485596 -0.33057156205177307 0.5469707250595093 128 128 128
-6.029874801635742 -0.06187453866004944 -0.060620665550231934 128 128 128
-5.919112205505371 -0.47263267636299133 0.1797252893447876 128 128 128
-5.5675835609436035 -0.05582234263420105 0.1785893440246582 128 128 128
-5.453287601470947 -0.5201119184494019 0.08649086952209473 128 128 128
-4.822967052459717 0.39216262102127075 -1.3562166690826416 128 128 128
-5.3515753746032715 0.7658463716506958 -1.477534294128418 128 128 128
-5.24109411239624 0.8510633707046509 -1.6204383373260498 128 128 128
-5.864656448364258 0.029380425810813904 -0.0173490047454834 128 128 128
-4.775943756103516 2.2973339557647705 -0.9047415256500244 128 128 128
-4.513827800750732 2.370201349258423 -0.813873291015625 128 128 128
-4.7253642082214355 1.6587088108062744 -1.269399642944336 128 128 128
-6.106167316436768 -0.41449299454689026 0.17830157279968262 128 128 128
-4.768405437469482 -0.5444953441619873 0.19580960273742676 128 128 128
-3.9472999572753906 0.5553665161132812 -1.059793472290039 128 128 128
-4.4529709815979 2.280320644378662 -1.0615808963775635 128 128 128
-6.098829746246338 -0.41025635600090027 0.32103919982910156 128 128 128
-5.4360127449035645 -0.5333188772201538 -0.0874335765838623 128 128 128
-5.388911724090576 0.5357714891433716 -1.213698148727417 128 128 128
-5.571880340576172 -0.3556007444858551 -0.28961288928985596 128 128 128
-6.0004706382751465 -0.062220558524131775 -0.0032843351364135742 128 128 128
-5.11154317855835 0.7495921850204468 -1.7888343334197998 128 128 128
-5.584166526794434 0.26457327604293823 -0.15730392932891846 128 128 128
-5.355409145355225 0.11603831499814987 -1.5323190689086914 128 128 128
-5.644190311431885 0.1913357526063919 -0.13084137439727783 128 128 128
-5.695747375488281 -0.47567322850227356 0.06003260612487793 128 128 128
-5.8358941078186035 0.049660369753837585 0.2527824640274048 128 128 128
-5.36746072769165 0.6237586140632629 -1.5339879989624023 128 128 128
-5.495795726776123 0.2783442735671997 -0.04853188991546631 128 128 128
-3.9093496799468994 1.6521650552749634 -1.0340616703033447 128 128 128
-5.438302040100098 -0.5354081392288208 -0.1867591142654419 128 128 128
-5.646273612976074 0.14492523670196533 -0.12905311584472656 128 128 128
-6.040462970733643 -0.42002472281455994 0.28313934803009033 128 128 128
-5.454256534576416 -0.05820155143737793 -0.21279430389404297 128 128 128
-5.486654281616211 -0.5234804153442383 -0.15954816341400146 128 128 128
-5.754173755645752 -0.44911637902259827 0.1740274429321289 128 128 128
-5.362740993499756 0.3633362054824829 -1.465012788772583 128 128 128
-4.7811079025268555 0.5776878595352173 -2.1738851070404053 128 128 128
-6.055571556091309 -0.03310658037662506 -0.10907292366027832 128 128 128
-6.155026912689209 -0.39730265736579895 0.2264871597290039 128 128 128
-5.740577697753906 -0.4313438832759857 0.013980984687805176 128 128 128
-5.221146106719971 -0.5782977342605591 -1.1330902576446533 128 128 128
-5.5295586585998535 -0.5223758220672607 -0.26560068130493164 128 128 128
-5.7713541984558105 -0.47630980610847473 0.18930137157440186 128 128 128
-5.352351188659668 0.9584420919418335 -1.4332153797149658 128 128 128
-3.9680495262145996 0.3049110770225525 -1.117837905883789 128 128 128
-5.618153095245361 -0.06768785417079926 0.21949660778045654 128 128 128
-5.788018703460693 -0.46529027819633484 0.2831237316131592 128 128 128
-5.750900745391846 -0.5860048532485962 0.07806313037872314 128 128 128
-5.852563858032227 -0.29465991258621216 -0.07426905632019043 128 128 128
-5.1782307624816895 0.564246654510498 -1.4562630653381348 128 128 128
-5.249909400939941 1.048802375793457 -1.7159347534179688 128 128 128
-5.5816521644592285 -0.07205414772033691 0.2188408374786377 128 128 128
-5.536324501037598 1.1918729543685913 -1.1272554397583008 128 128 128
-5.855504989624023 -0.003821268677711487 -0.36008739471435547 128 128 128
-5.526915550231934 -0.5043139457702637 0.18896663188934326 128 128 128
-6.003625392913818 -0.43743595480918884 -0.17125368118286133 128 128 128
-6.087072849273682 0.0654115378856659 -0.17530572414398193 128 128 128
-3.821777582168579 0.5477439165115356 -0.03666806221008301 128 128 128
-5.188082695007324 -0.6642036437988281 -1.1971931457519531 128 128 128
-5.6332011222839355 -0.012870103120803833 0.25718915462493896 128 128 128
-5.695782661437988 0.2238473743200302 -0.3314192295074463 128 128 128
-5.995712757110596 -0.4296426475048065 0.2824060916900635 128 128 128
-5.534454345703125 -0.5117104053497314 -0.13110566139221191 128 128 128
-5.607454299926758 -0.4400224983692169 -0.143776535987854 128 128 128
-5.675354480743408 0.1293153166770935 -0.4866328239440918 128 128 128
-5.7520623207092285 -0.10055771470069885 0.17796862125396729 128 128 128
-5.904721736907959 -0.4398535192012787 0.3173837661743164 128 128 128
-5.561518669128418 -0.0630134642124176 -0.27324342727661133 128 128 128
-5.935527324676514 -0.4173274338245392 0.22448241710662842 128 128 128
-5.907186508178711 0.07628943771123886 0.4818958044052124 128 128 128
-5.977344989776611 -0.05731460452079773 0.13843059539794922 128 128 128
-6.145999908447266 -0.40453729033470154 0.1551513671875 128 128 128
-4.815454006195068 2.450230360031128 -1.060412883758545 128 128 128
-5.612815856933594 0.255522221326828 -0.39635324478149414 128 128 128
-5.7502970695495605 0.019235610961914062 -0.3531820774078369 128 128 128
-5.352859973907471 -0.526740312576294 -0.17295002937316895 128 128 128
-5.394312381744385 -0.5231776237487793 -0.1641383171081543 128 128 128
-5.616756439208984 -0.5476738214492798 -0.09495723247528076 128 128 128
-5.655564308166504 -0.41483816504478455 0.10374867916107178 128 128 128
-5.815138339996338 -0.4552582800388336 0.34473180770874023 128 128 128
-5.861102104187012 -0.31703245639801025 0.5676133632659912 128 128 128
-5.531961917877197 0.1850062608718872 -0.872014045715332 128 128 128
-5.914997100830078 -0.44660380482673645 0.22182631492614746 128 128 128
-5.693276882171631 -0.47238144278526306 0.1280970573425293 128 128 128
-5.762125015258789 0.24373430013656616 -0.4485292434692383 128 128 128
-5.772597789764404 -0.0833890438079834 0.03586173057556152 128 128 128
-5.48574686050415 -0.4174952805042267 -0.09692633152008057 128 128 128
-5.485022068023682 0.3265635371208191 -0.06106424331665039 128 128 128
-5.54948616027832 0.12221061438322067 0.47378313541412354 128 128 128
-5.568484783172607 -0.06590515375137329 0.15526866912841797 128 128 128
-5.353766918182373 0.7708760499954224 -1.4556033611297607 128 128 128
-5.2634429931640625 0.8615155220031738 -1.378981590270996 128 128 128
-5.868359565734863 0.0189388245344162 -0.045618653297424316 128 128 128
-5.442773342132568 -0.49726882576942444 -0.03156709671020508 128 128 128
-5.394046306610107 0.5507463216781616 -1.0911459922790527 128 128 128
-5.575869083404541 -0.17423498630523682 0.05902302265167236 128 128 128
-5.584567070007324 0.2591205835342407 -0.17836380004882812 128 128 128
-5.350449085235596 0.09545165300369263 -1.6240346431732178 128 128 128
-5.645721912384033 0.16959652304649353 -0.19348669052124023 128 128 128
-5.688513278961182 -0.3337363302707672 0.2962125539779663 128 128 128
-5.440598964691162 -0.5163377523422241 -0.15331971645355225 128 128 128
-5.645970344543457 0.14898791909217834 -0.10715484619140625 128 128 128
-6.034441947937012 -0.4031967222690582 0.31605064868927 128 128 128
-5.450540065765381 -0.09167468547821045 -0.3068094253540039 128 128 128
-5.48978853225708 -0.4984891712665558 -0.111785888671875 128 128 128
-5.754270553588867 -0.4396360218524933 0.19218552112579346 128 128 128
-5.3660736083984375 0.36840903759002686 -1.4304614067077637 128 128 128
-5.770097732543945 -0.4562619626522064 0.2237410545349121 128 128 128
-5.360625267028809 0.9571961164474487 -1.3022136688232422 128 128 128
-5.618537425994873 -0.0730554461479187 0.2094440460205078 128 128 128
-5.783340930938721 -0.4289027750492096 0.34320878982543945 128 128 128
-5.834392070770264 -0.2346319854259491 0.07878673076629639 128 128 128
-5.582520008087158 -0.07205185294151306 0.21917080879211426 128 128 128
-5.861571311950684 -0.0034892261028289795 -0.40403223037719727 128 128 128
-5.634442329406738 -0.025685280561447144 0.23605132102966309 128 128 128
-5.796816349029541 -0.02675950527191162 0.36698639392852783 128 128 128
-5.540309429168701 -0.526972770690918 -0.17599117755889893 128 128 128
-5.6106390953063965 -0.39751026034355164 -0.058368802070617676 128 128 128
-5.666276931762695 0.21272075176239014 -0.22987163066864014 128 128 128
-5.747010707855225 -0.05795620381832123 0.2634105682373047 128 128 128
-5.9102463722229 -0.46348991990089417 0.28576910495758057 128 128 128
-5.557852268218994 -0.13506945967674255 -0.4506111145019531 128 128 128
-5.933791160583496 -0.4059081971645355 0.24605774879455566 128 128 128
-5.910490989685059 0.06964480876922607 0.4679461717605591 128 128 128
-4.822914123535156 2.4338905811309814 -1.0235488414764404 128 128 128
-5.614164352416992 0.27771270275115967 -0.30902910232543945 128 128 128
-5.75219202041626 0.02005106210708618 -0.36547303199768066 128 128 128
-5.357512950897217 -0.5031882524490356 -0.13045752048492432 128 128 128
-5.398841857910156 -0.4968036711215973 -0.11665534973144531 128 128 128
-5.619079113006592 -0.4678187072277069 0.04208731651306152 128 128 128
-5.655764102935791 -0.40688493847846985 0.1179964542388916 128 128 128
-5.8144121170043945 -0.4460620582103729 0.35919010639190674 128 128 128
-5.86029052734375 -0.30915367603302 0.5800226926803589 128 128 128
-5.529325485229492 0.16868376731872559 -0.9382658004760742 128 128 128
-5.913669109344482 -0.43802061676979065 0.23617935180664062 128 128 128
-5.693275451660156 -0.4634426534175873 0.1430349349975586 128 128 128
-5.762999057769775 0.2383108288049698 -0.46959424018859863 128 128 128
-5.771111011505127 -0.06829866766929626 0.07073140144348145 128 128 128
-5.484489440917969 0.32282841205596924 -0.07468318939208984 128 128 128
-5.548827171325684 0.10099576413631439 0.4249917268753052 128 128 128
-5.507291316986084 -0.3718920648097992 0.22954905033111572 128 128 128
-5.56889009475708 -0.032600268721580505 0.22529208660125732 128 128 128
-5.452881813049316 -0.3752366602420807 0.17125940322875977 128 128 128
-5.682818412780762 -0.2804034948348999 0.386197566986084 128 128 128
-5.4536848068237305 -0.0756528377532959 -0.28196489810943604 128 128 128
-5.49575138092041 -0.3908173739910126 0.07329165935516357 128 128 128
-5.635335445404053 -0.019942939281463623 0.24370038509368896 128 128 128
-5.537683010101318 -0.4226855933666229 0.027389168739318848 128 128 128
-5.5990800857543945 -0.13339132070541382 0.4191049337387085 128 128 128
-5.406213283538818 -0.43451830744743347 -0.009156465530395508 128 128 128
-5.612823009490967 -0.305144727230072 0.31299519538879395 128 128 128
-5.484548091888428 0.33262717723846436 -0.055707454681396484 128 128 128
-5.54901647567749 0.09532112628221512 0.41152334213256836 128 128 128
-5.508321762084961 -0.3497539460659027 0.26662421226501465 128 128 128
-5.455806255340576 -0.2941923439502716 0.30829286575317383 128 128 128
-5.496146202087402 -0.30433031916618347 0.22339963912963867 128 128 128
-3.624730348587036 0.18906891345977783 -0.17917180061340332 128 128 128
-3.8044583797454834 0.4671489894390106 -0.02020394802093506 128 128 128
-5.414928436279297 -0.32402345538139343 0.18130576610565186 128 128 128
-3.744030714035034 0.6874648332595825 0.06065678596496582 128 128 128
-3.6260721683502197 1.6277602910995483 -0.12523162364959717 128 128 128
-3.6880764961242676 0.2824733555316925 -0.05098128318786621 128 128 128
-3.660648822784424 0.13945412635803223 -0.05618917942047119 128 128 128
-5.507692337036133 -0.2530841529369354 0.4242972135543823 128 128 128
-3.669528007507324 0.49610403180122375 -0.23914015293121338 128 128 128
-4.860555171966553 -0.5566185712814331 -1.2103726863861084 128 128 128
-3.624730348587036 0.18906891345977783 -0.17917180061340332 128 128 128
-3.7112648487091064 0.4352267384529114 -0.16586363315582275 128 128 128
-5.413706302642822 -0.34270188212394714 0.15388143062591553 128 128 128
-3.6934471130371094 0.6767815351486206 -0.011578798294067383 128 128 128
-3.6260721683502197 1.6277602910995483 -0.12523162364959717 128 128 128
-3.6880764961242676 0.2824733555316925 -0.05098128318786621 128 128 128
-3.660648822784424 0.13945412635803223 -0.05618917942047119 128 128 128
-3.669528007507324 0.49610403180122375 -0.23914015293121338 128 128 128
-4.876926422119141 -0.5114763975143433 -1.1059389114379883 128 128 128
-3.4127328395843506 1.7006510496139526 0.3380246162414551 128 128 128
-3.624730348587036 0.18906891345977783 -0.17917180061340332 128 128 128
-3.7112648487091064 0.4352267384529114 -0.16586363315582275 128 128 128
-5.413706302642822 -0.34270188212394714 0.15388143062591553 128 128 128
-3.6934471130371094 0.6767815351486206 -0.011578798294067383 128 128 128
-3.6260721683502197 1.6277602910995483 -0.12523162364959717 128 128 128
-3.6880764961242676 0.2824733555316925 -0.05098128318786621 128 128 128
-3.660648822784424 0.13945412635803223 -0.05618917942047119 128 128 128
-3.669528007507324 0.49610403180122375 -0.23914015293121338 128 128 128
-4.876926422119141 -0.5114763975143433 -1.1059389114379883 128 128 128
-3.4127328395843506 1.7006510496139526 0.3380246162414551 128 128 128
-3.624730348587036 0.18906891345977783 -0.17917180061340332 128 128 128
-3.7112648487091064 0.4352267384529114 -0.16586363315582275 128 128 128
-5.413706302642822 -0.34270188212394714 0.15388143062591553 128 128 128
-3.6934471130371094 0.6767815351486206 -0.011578798294067383 128 128 128
-3.6260721683502197 1.6277602910995483 -0.12523162364959717 128 128 128
-3.6880764961242676 0.2824733555316925 -0.05098128318786621 128 128 128
-3.660648822784424 0.13945412635803223 -0.05618917942047119 128 128 128
-3.669528007507324 0.49610403180122375 -0.23914015293121338 128 128 128
-4.876926422119141 -0.5114763975143433 -1.1059389114379883 128 128 128
-3.4127328395843506 1.7006510496139526 0.3380246162414551 128 128 128
-3.624730348587036 0.18906891345977783 -0.17917180061340332 128 128 128
-3.7112648487091064 0.4352267384529114 -0.16586363315582275 128 128 128
-5.413706302642822 -0.34270188212394714 0.15388143062591553 128 128 128
-3.6934471130371094 0.6767815351486206 -0.011578798294067383 128 128 128
-3.6260721683502197 1.6277602910995483 -0.12523162364959717 128 128 128
-3.6880764961242676 0.2824733555316925 -0.05098128318786621 128 128 128
-3.660648822784424 0.13945412635803223 -0.05618917942047119 128 128 128
-3.669528007507324 0.49610403180122375 -0.23914015293121338 128 128 128
-4.876926422119141 -0.5114763975143433 -1.1059389114379883 128 128 128
-3.4127328395843506 1.7006510496139526 0.3380246162414551 128 128 128
-4.046616554260254 0.6222460269927979 1.7219939231872559 128 128 128
-4.010908603668213 0.7020206451416016 1.6945574283599854 128 128 128
-4.016452789306641 1.8346670866012573 1.524009108543396 128 128 128
-4.040885925292969 0.6204431056976318 1.718658208847046 128 128 128
-4.014896392822266 0.7028442621231079 1.6969969272613525 128 128 128
-4.016452789306641 1.8346670866012573 1.524009108543396 128 128 128
-4.061008930206299 0.6278852820396423 1.7303190231323242 128 128 128
-4.050807952880859 0.7116265296936035 1.7187881469726562 128 128 128
-4.065556049346924 0.715316891670227 1.727943778038025 128 128 128
-4.123063087463379 0.7273905277252197 1.7658857107162476 128 128 128
-4.343894004821777 1.4400871992111206 1.9228485822677612 128 128 128
-4.285660743713379 0.7036670446395874 1.8859351873397827 128 128 128
-2.862067937850952 -0.0033491700887680054 2.4854836463928223 128 128 128
-2.8572964668273926 0.5603899955749512 2.479438066482544 128 128 128
-2.839449644088745 0.5568886995315552 2.4854683876037598 128 128 128
-2.8877615928649902 0.6206955313682556 2.4686381816864014 128 128 128
-4.276313304901123 0.7011017799377441 1.8802931308746338 128 128 128
-2.9089035987854004 0.023927152156829834 2.4802677631378174 128 128 128
-3.5168745517730713 -0.159902423620224 2.5695290565490723 128 128 128
-3.593815326690674 -0.18176740407943726 2.484220504760742 128 128 128
-4.269329071044922 0.18994204699993134 1.7030869722366333 128 128 128
-4.3414225578308105 1.5200656652450562 1.9048235416412354 128 128 128
-2.98897385597229 0.05479024350643158 2.4983673095703125 128 128 128
-2.8666584491729736 0.5644867420196533 2.479194402694702 128 128 128
-2.861659049987793 0.5633722543716431 2.486928701400757 128 128 128
-2.8830556869506836 0.620569109916687 2.4678030014038086 128 128 128
-4.333439826965332 0.7192206382751465 1.922401785850525 128 128 128
-2.9307498931884766 0.03583112359046936 2.4834327697753906 128 128 128
-3.3996026515960693 1.6361531019210815 0.5780545473098755 128 128 128
-3.677844285964966 -0.12285548448562622 2.494941473007202 128 128 128
-4.357637882232666 1.5123693943023682 1.9162769317626953 128 128 128
-2.681682825088501 -0.16120335459709167 2.479010820388794 128 128 128
-3.898280382156372 0.7662174701690674 2.340980052947998 128 128 128
-4.376548767089844 0.042426154017448425 1.962981939315796 128 128 128
-4.333334445953369 1.5072121620178223 1.9200941324234009 128 128 128
-4.1560516357421875 0.9885190725326538 2.3864479064941406 128 128 128
-2.6174373626708984 0.5202450752258301 2.4564671516418457 128 128 128
-2.6307995319366455 0.5255290269851685 2.4677629470825195 128 128 128
-2.538674831390381 0.5696793794631958 2.4303345680236816 128 128 128
-4.247246265411377 0.6961522102355957 1.8585988283157349 128 128 128
-2.748391628265381 -0.03005741536617279 2.469682216644287 128 128 128
-3.3886728286743164 1.6358985900878906 0.5733457803726196 128 128 128
-4.290134429931641 1.5455071926116943 1.8655766248703003 128 128 128
-2.681682825088501 -0.16120335459709167 2.479010820388794 128 128 128
-3.837242841720581 0.7555667161941528 2.326047658920288 128 128 128
-4.282466411590576 1.5309325456619263 1.8819026947021484 128 128 128
-3.692939519882202 0.7685117721557617 2.279892921447754 128 128 128
-2.5288517475128174 0.5022853016853333 2.4501395225524902 128 128 128
-2.488013505935669 0.4954772889614105 2.4552717208862305 128 128 128
-2.5352134704589844 0.5661282539367676 2.435506582260132 128 128 128
-4.217888355255127 0.6882853507995605 1.8370122909545898 128 128 128
-2.426694869995117 -0.16831767559051514 2.43074369430542 128 128 128
-4.258706092834473 1.561538577079773 1.8424588441848755 128 128 128
-2.5591888427734375 -0.21575257182121277 2.468139886856079 128 128 128
-3.7511847019195557 0.7402025461196899 2.304239273071289 128 128 128
-3.692939519882202 0.7685117721557617 2.279892921447754 128 128 128
-2.743410587310791 0.18138115108013153 2.7169508934020996 128 128 128
-3.5802268981933594 0.7393622398376465 2.272308349609375 128 128 128
-3.7002081871032715 0.729992151260376 2.2918477058410645 128 128 128
-2.440084457397461 0.4873380661010742 2.4391932487487793 128 128 128
-2.318875312805176 0.5339421033859253 2.4059226512908936 128 128 128
-3.4754018783569336 -0.17398309707641602 2.5780575275421143 128 128 128
-2.5159523487091064 -0.23425361514091492 2.4641826152801514 128 128 128
-3.726888418197632 0.736297607421875 2.2981531620025635 128 128 128
-4.248769283294678 -0.08137336373329163 1.8686178922653198 128 128 128
-3.658325672149658 0.7636364698410034 2.270369529724121 128 128 128
-2.743410587310791 0.18138115108013153 2.7169508934020996 128 128 128
-3.5802268981933594 0.7393622398376465 2.272308349609375 128 128 128
-3.7002081871032715 0.729992151260376 2.2918477058410645 128 128 128
-3.234437942504883 1.0465787649154663 2.220160961151123 128 128 128
-2.456760883331299 0.4912640452384949 2.4479570388793945 128 128 128
-3.4754018783569336 -0.17398309707641602 2.5780575275421143 128 128 128
-2.5022335052490234 -0.23254305124282837 2.470655918121338 128 128 128
-3.686171054840088 0.729224443435669 2.290022611618042 128 128 128
-4.248769283294678 -0.08137336373329163 1.8686178922653198 128 128 128
-4.042324066162109 1.6387606859207153 1.6907858848571777 128 128 128
-3.5808897018432617 0.7530068159103394 2.2499313354492188 128 128 128
-2.6317102909088135 0.14638882875442505 2.714388132095337 128 128 128
-3.538652181625366 0.7328817844390869 2.262195110321045 128 128 128
