ply
format ascii 1.0
element vertex 398
property float x
property float y
property float z
property uchar red
property uchar green
property uchar blue
end_header
0.21017906069755554 -0.07153774052858353 -0.06581365317106247 128 128 128
0.07063399255275726 -0.06914565712213516 -0.0033386051654815674 128 128 128
0.9482358694076538 0.37238645553588867 0.1602339744567871 128 128 128
0.37468665838241577 -0.06537555158138275 0.04353172704577446 128 128 128
1.0536257028579712 0.4949182868003845 0.29488658905029297 128 128 128
1.1986932754516602 0.5743556618690491 -0.2472621500492096 128 128 128
0.5246860980987549 0.0990728884935379 0.04891819879412651 128 128 128
0.81818026304245 0.42133817076683044 0.19887933135032654 128 128 128
0.9209014177322388 0.3538581132888794 0.1902131885290146 128 128 128
0.8288925290107727 0.377879798412323 0.2449132800102234 128 128 128
0.808634340763092 0.2778850495815277 -0.14810192584991455 128 128 128
0.5736314654350281 0.0850306898355484 -0.3306296765804291 128 128 128
0.8480912446975708 0.1945337951183319 0.05169614031910896 128 128 128
0.7577531337738037 0.44488683342933655 0.20268931984901428 128 128 128
0.6160892844200134 0.3723072409629822 0.24936828017234802 128 128 128
0.6377069354057312 0.3734476864337921 0.24633413553237915 128 128 128
0.48102623224258423 0.0638488233089447 -0.2235584259033203 128 128 128
0.4703771471977234 0.03245578333735466 -0.2156662940979004 128 128 128
1.0811017751693726 0.47605904936790466 0.27948710322380066 128 128 128
0.9898926019668579 0.5180233716964722 0.32550475001335144 128 128 128
0.4106397330760956 0.003793589072301984 -0.1861189305782318 128 128 128
1.8414661884307861 0.18559379875659943 -0.003058001399040222 128 128 128
0.2692628800868988 0.1017623096704483 0.27041128277778625 128 128 128
0.3916974365711212 0.4329158067703247 0.44786906242370605 128 128 128
0.6783643364906311 0.2000121921300888 -0.3019546866416931 128 128 128
1.1389892101287842 0.4853112995624542 -0.3600846230983734 128 128 128
0.8619378805160522 0.43130332231521606 -0.18618428707122803 128 128 128
1.1880276203155518 0.26479387283325195 -0.39722731709480286 128 128 128
1.1758489608764648 0.43394163250923157 -0.2104836404323578 128 128 128
1.316456913948059 0.05386769771575928 -0.2842126190662384 128 128 128
1.2284327745437622 0.13380862772464752 -0.2177819013595581 128 128 128
1.0971235036849976 -0.025326132774353027 -0.25931021571159363 128 128 128
0.8099098205566406 0.5147858262062073 0.15646253526210785 128 128 128
1.8516556024551392 0.3666186034679413 -0.11305827647447586 128 128 128
1.0332854986190796 0.026687534525990486 -0.03254733234643936 128 128 128
1.0178695917129517 0.41620931029319763 0.2335299253463745 128 128 128
0.6420237421989441 0.4496094286441803 0.3423272967338562 128 128 128
0.2411908209323883 0.032741062343120575 0.22809532284736633 128 128 128
0.5197684168815613 0.30148229002952576 0.3280541002750397 128 128 128
0.7470620274543762 0.19620975852012634 -0.21431168913841248 128 128 128
0.8188163042068481 0.4694528877735138 -0.18205493688583374 128 128 128
0.8780244588851929 0.40897291898727417 0.09062513709068298 128 128 128
0.8311893343925476 0.4385138750076294 0.12192131578922272 128 128 128
0.9216294288635254 0.3963930010795593 0.08117970079183578 128 128 128
0.36929184198379517 0.4809249937534332 0.32734426856040955 128 128 128
0.4117729365825653 0.4654092788696289 0.331129252910614 128 128 128
0.8663895130157471 0.4560912549495697 0.18855765461921692 128 128 128
0.41127869486808777 0.4867226779460907 0.35642164945602417 128 128 128
0.6450610160827637 0.4594884514808655 0.29150110483169556 128 128 128
0.42338940501213074 0.49047258496284485 0.37316766381263733 128 128 128
0.7843766212463379 0.37425512075424194 -0.24529781937599182 128 128 128
0.8333479166030884 0.43782731890678406 0.3217757046222687 128 128 128
0.45574134588241577 0.4776080250740051 0.42967090010643005 128 128 128
1.1104156970977783 0.48577263951301575 0.3007330894470215 128 128 128
0.6067030429840088 0.49838072061538696 0.4114844799041748 128 128 128
0.9955110549926758 0.5139907598495483 0.33977022767066956 128 128 128
0.9790078401565552 0.3766172230243683 -0.38062265515327454 128 128 128
0.5677556991577148 0.4421790838241577 0.4136386215686798 128 128 128
0.9160534739494324 0.524651825428009 0.44208869338035583 128 128 128
0.6781536340713501 0.520433247089386 0.4835638105869293 128 128 128
0.9785663485527039 0.5086802244186401 0.4365812838077545 128 128 128
1.0058462619781494 0.4557704031467438 0.4575363099575043 128 128 128
0.5247367024421692 0.45956364274024963 0.5238643884658813 128 128 128
1.15052330493927 0.4760572910308838 0.4740574359893799 128 128 128
0.7046050429344177 0.46755701303482056 0.5259667038917542 128 128 128
0.7117900848388672 0.521088719367981 0.584311842918396 128 128 128
0.6285972595214844 0.46647828817367554 0.6253143548965454 128 128 128
0.6642747521400452 0.46641600131988525 0.7159801125526428 128 128 128
0.7872977256774902 0.50286865234375 0.024870678782463074 128 128 128
0.59616619348526 0.4445108473300934 0.731431782245636 128 128 128
1.4835195541381836 0.496164470911026 -0.24706938862800598 128 128 128
1.0632127523422241 -0.12861448526382446 -0.25380954146385193 128 128 128
0.42365071177482605 -0.1025121808052063 0.01344791054725647 128 128 128
0.971510648727417 0.3372609317302704 0.05185720697045326 128 128 128
0.5089643001556396 0.4843394160270691 0.3610047399997711 128 128 128
0.9883657693862915 0.12748505175113678 0.04735919088125229 128 128 128
0.4038761556148529 0.44218218326568604 0.4076950252056122 128 128 128
1.006890058517456 0.2697658836841583 0.18969908356666565 128 128 128
0.48722216486930847 0.42838621139526367 0.4001809358596802 128 128 128
0.7299091219902039 0.4706111252307892 0.3802103102207184 128 128 128
0.5753979086875916 0.4584745466709137 0.43712738156318665 128 128 128
0.48150038719177246 0.4644584357738495 0.46108657121658325 128 128 128
0.5719673037528992 0.4687240421772003 0.4604896903038025 128 128 128
0.4727902114391327 0.4505729079246521 0.4738336205482483 128 128 128
1.4412198066711426 -0.041419532150030136 0.057104241102933884 128 128 128
0.4850480258464813 0.49290692806243896 0.5013447403907776 128 128 128
0.553529679775238 0.4670763313770294 0.472994327545166 128 128 128
0.549202561378479 0.4898703098297119 0.5105416774749756 128 128 128
0.923384428024292 0.4790920317173004 0.4582988917827606 128 128 128
0.5565964579582214 0.456831157207489 0.49671876430511475 128 128 128
0.6219028234481812 0.4805869460105896 0.5171235799789429 128 128 128
0.736638605594635 0.4583520293235779 0.4990544617176056 128 128 128
1.69140625 -0.1354486346244812 0.05183789134025574 128 128 128
1.0790385007858276 -0.13703042268753052 0.14169934391975403 128 128 128
1.5286694765090942 -0.29391834139823914 -0.047109343111515045 128 128 128
0.6363080739974976 0.4768938422203064 0.5449745655059814 128 128 128
0.567298412322998 0.4564068019390106 0.5433109998703003 128 128 128
0.7225081324577332 0.4429575204849243 0.527296245098114 128 128 128
0.7057690620422363 0.4753301739692688 0.5400659441947937 128 128 128
0.5970908403396606 0.4710531532764435 0.5789966583251953 128 128 128
0.5329658389091492 0.4750964343547821 0.5891439318656921 128 128 128
0.6367757320404053 0.46066543459892273 0.5916008353233337 128 128 128
1.0888558626174927 0.04810304567217827 0.3166434168815613 128 128 128
0.7901754379272461 0.2963985502719879 0.49998870491981506 128 128 128
0.5520967245101929 0.4587252140045166 0.6154348254203796 128 128 128
0.5952499508857727 0.4511145055294037 0.6099901795387268 128 128 128
0.6847851872444153 0.4695800840854645 0.6229944229125977 128 128 128
0.7527604699134827 0.47774872183799744 0.6206117868423462 128 128 128
0.5738267302513123 0.4564254581928253 0.6698166728019714 128 128 128
0.6431898474693298 0.4593399167060852 0.6787930130958557 128 128 128
0.6940873861312866 0.45287519693374634 0.675006628036499 128 128 128
0.8373580574989319 0.4687877297401428 0.7012119889259338 128 128 128
0.5885418057441711 0.44854456186294556 0.6894069910049438 128 128 128
0.5508795380592346 0.44295188784599304 0.6870930194854736 128 128 128
0.712973415851593 0.4686427116394043 0.7119213342666626 128 128 128
1.0771070718765259 -0.11351548135280609 0.36351653933525085 128 128 128
0.737084150314331 0.45794743299484253 0.7417774200439453 128 128 128
0.9184972643852234 0.4404325485229492 0.7061386108398438 128 128 128
0.3788388669490814 0.13408760726451874 0.5017510652542114 128 128 128
0.9051101803779602 0.40663182735443115 0.17225736379623413 128 128 128
1.017560362815857 0.5242827534675598 0.30489394068717957 128 128 128
0.9050636291503906 -0.13383497297763824 0.23655369877815247 128 128 128
1.176221251487732 -0.11682672798633575 -0.29862797260284424 128 128 128
1.4135288000106812 0.49628832936286926 -0.12861210107803345 128 128 128
1.2371255159378052 -0.0011822065571323037 -0.13274556398391724 128 128 128
0.24078664183616638 -0.03059922531247139 0.21403709053993225 128 128 128
0.6512505412101746 0.5213322043418884 0.31671690940856934 128 128 128
0.6080467700958252 0.47587883472442627 0.4033116102218628 128 128 128
0.7566141486167908 0.4773959815502167 0.543583869934082 128 128 128
0.810941219329834 0.49611786007881165 0.5962785482406616 128 128 128
0.6383300423622131 0.3790830373764038 0.5868947505950928 128 128 128
0.6718540191650391 0.4590294361114502 0.6458709836006165 128 128 128
1.3064424991607666 -0.38725683093070984 0.3230161666870117 128 128 128
0.6692150831222534 0.4646103084087372 0.6659994721412659 128 128 128
1.1892707347869873 0.02230309322476387 -0.23820772767066956 128 128 128
0.7481541037559509 0.4955666661262512 0.7100087404251099 128 128 128
0.8238034844398499 0.4723842740058899 0.7631537914276123 128 128 128
0.9737222790718079 -0.32795238494873047 -0.16632452607154846 128 128 128
0.3528273105621338 0.12280551344156265 0.1672988384962082 128 128 128
0.7617781162261963 -0.08556453883647919 0.5224488973617554 128 128 128
0.7945006489753723 -0.002098285360261798 0.5782934427261353 128 128 128
0.7923660278320312 -0.032163143157958984 0.5713663697242737 128 128 128
1.0364397764205933 0.17889899015426636 -0.047486089169979095 128 128 128
1.0302698612213135 0.05761551484465599 0.036102116107940674 128 128 128
0.9302459955215454 0.3071560859680176 0.1348300278186798 128 128 128
1.2625333070755005 -0.025398805737495422 0.04267945885658264 128 128 128
0.6561857461929321 0.48231270909309387 0.3631034791469574 128 128 128
0.6876903772354126 0.4860389530658722 0.39896705746650696 128 128 128
1.0757341384887695 0.4858037829399109 0.3970426917076111 128 128 128
1.0187032222747803 -0.3861882984638214 0.14998319745063782 128 128 128
0.6078547835350037 0.4515729248523712 0.47358712553977966 128 128 128
0.6743178963661194 0.4050736427307129 0.43912211060523987 128 128 128
0.9987040162086487 -0.3503735363483429 0.19648033380508423 128 128 128
1.2622618675231934 -0.3580149710178375 0.28877872228622437 128 128 128
0.9967649579048157 -0.27771690487861633 0.3278823792934418 128 128 128
0.5830651521682739 0.4691831171512604 0.6512922644615173 128 128 128
1.1367298364639282 -0.35375189781188965 0.28680160641670227 128 128 128
1.1471716165542603 -0.179451122879982 0.3822680115699768 128 128 128
1.4006272554397583 1.1747769117355347 1.0610947608947754 128 128 128
0.837353527545929 0.15699198842048645 0.5964754819869995 128 128 128
0.6579150557518005 0.41073089838027954 0.7013657093048096 128 128 128
1.0725951194763184 -0.1425587385892868 0.5336060523986816 128 128 128
0.9691844582557678 0.2988259494304657 0.6832523941993713 128 128 128
0.6428337693214417 0.40688690543174744 0.7474369406700134 128 128 128
1.7294204235076904 -0.503675639629364 0.47551319003105164 128 128 128
0.8479454517364502 0.07607647031545639 0.608727753162384 128 128 128
0.862095832824707 0.27295002341270447 0.545680820941925 128 128 128
0.8055364489555359 0.3883630037307739 0.5762900710105896 128 128 128
0.6394949555397034 0.3201449513435364 0.09826060384511948 128 128 128
1.8659523725509644 -0.6034948825836182 -0.1571095585823059 128 128 128
1.5682692527770996 -0.44650575518608093 0.00560741126537323 128 128 128
1.6129255294799805 -0.45106053352355957 0.025188259780406952 128 128 128
1.4993703365325928 -0.44717809557914734 0.0703139528632164 128 128 128
1.662703037261963 -0.41927629709243774 0.05952359735965729 128 128 128
0.6703211665153503 0.3849106729030609 0.42912501096725464 128 128 128
0.9440083503723145 0.003789367852732539 0.38793647289276123 128 128 128
0.8804153203964233 0.23240576684474945 0.5012623071670532 128 128 128
1.7800151109695435 -0.6513257622718811 0.4176371991634369 128 128 128
0.6450398564338684 0.3500661849975586 0.579261839389801 128 128 128
0.8315834403038025 0.49138298630714417 0.7043563723564148 128 128 128
1.4551844596862793 -0.5608997941017151 -0.1297444999217987 128 128 128
0.8674091696739197 0.4892262816429138 0.7169941067695618 128 128 128
1.0188884735107422 0.5916492938995361 0.8046258687973022 128 128 128
1.684136986732483 -0.3826535642147064 -0.1469639539718628 128 128 128
0.9330607652664185 -0.05138476938009262 0.09056109189987183 128 128 128
0.9292305707931519 0.3718767762184143 0.8188311457633972 128 128 128
1.1323583126068115 0.6118614673614502 0.9699855446815491 128 128 128
0.8866857290267944 0.458362340927124 0.8655311465263367 128 128 128
0.818293571472168 0.3964916467666626 0.8475470542907715 128 128 128
1.150572419166565 -0.08787308633327484 0.8333933353424072 128 128 128
0.6772147417068481 0.3985998034477234 0.2661060094833374 128 128 128
1.614778995513916 -0.48250603675842285 -0.020037904381752014 128 128 128
0.7015528678894043 -0.25055086612701416 0.6408390402793884 128 128 128
0.8324282169342041 0.5851890444755554 0.2947198748588562 128 128 128
0.9000657796859741 -0.057437703013420105 0.22247213125228882 128 128 128
1.9727762937545776 -0.6251487731933594 -0.04478933662176132 128 128 128
1.047594666481018 0.17176897823810577 0.2666715383529663 128 128 128
1.4500834941864014 -0.37501585483551025 0.0937977135181427 128 128 128
1.312905192375183 -0.3652580678462982 0.22925794124603271 128 128 128
0.8814222812652588 -0.028505219146609306 0.38664230704307556 128 128 128
0.9229278564453125 0.23197059333324432 0.4601828455924988 128 128 128
1.667275309562683 -0.5865752696990967 0.3637608289718628 128 128 128
1.0455390214920044 -0.12915906310081482 0.4654694199562073 128 128 128
1.5605840682983398 -0.5151087045669556 0.43067046999931335 128 128 128
1.9460917711257935 -0.6807120442390442 0.35722535848617554 128 128 128
1.6628273725509644 -0.5166178941726685 0.3802890181541443 128 128 128
0.8644651174545288 0.22982819378376007 0.5755448341369629 128 128 128
0.8251535892486572 -0.12856975197792053 0.5102452039718628 128 128 128
1.4433834552764893 -0.6339183449745178 0.474299818277359 128 128 128
2.0155203342437744 -0.7355661988258362 0.487016886472702 128 128 128
0.8946186900138855 0.24368777871131897 0.741437554359436 128 128 128
0.9835240244865417 -0.010744740255177021 0.6410985589027405 128 128 128
1.1697144508361816 -0.10072430968284607 0.7196864485740662 128 128 128
1.0854145288467407 -0.1240893229842186 0.7638060450553894 128 128 128
0.9913198351860046 0.04135814309120178 0.3478288948535919 128 128 128
0.8980556130409241 -0.0225649606436491 0.24441713094711304 128 128 128
1.430625319480896 0.5109859108924866 0.22726941108703613 128 128 128
0.9604817628860474 0.013010244816541672 0.3561403751373291 128 128 128
1.3836348056793213 0.5009321570396423 0.41537290811538696 128 128 128
1.2228140830993652 0.5254481434822083 0.43183037638664246 128 128 128
1.6439908742904663 -0.5261849761009216 0.36778002977371216 128 128 128
0.8498199582099915 0.41534188389778137 0.5317741632461548 128 128 128
1.2372941970825195 -0.1390502005815506 0.5286112427711487 128 128 128
1.1533628702163696 -0.14673462510108948 0.5282872915267944 128 128 128
0.888854444026947 0.34421101212501526 0.6186150312423706 128 128 128
0.8701410889625549 -0.09262028336524963 0.18056967854499817 128 128 128
1.088415503501892 -0.33244118094444275 0.13206352293491364 128 128 128
1.0491541624069214 0.5099669098854065 0.8491116762161255 128 128 128
0.9687027931213379 0.48767024278640747 0.8283966183662415 128 128 128
1.098751187324524 0.42049115896224976 0.8978023529052734 128 128 128
0.9646580219268799 0.48309800028800964 0.8877187967300415 128 128 128
0.9244261384010315 -0.014316286891698837 0.8579707741737366 128 128 128
1.0288548469543457 0.36532726883888245 0.3418811559677124 128 128 128
1.3829177618026733 0.498819500207901 0.3671130836009979 128 128 128
1.3791379928588867 -0.34996017813682556 0.296409547328949 128 128 128
0.8258400559425354 -0.0280425064265728 0.3755987882614136 128 128 128
1.035080909729004 -0.15605884790420532 0.3339391350746155 128 128 128
1.137198805809021 -0.16014358401298523 0.40274715423583984 128 128 128
0.9346895217895508 -0.09409429877996445 0.36103618144989014 128 128 128
0.7841824293136597 -0.15200340747833252 0.41834384202957153 128 128 128
1.9628647565841675 -0.7177183628082275 0.47923892736434937 128 128 128
0.1909322887659073 -0.5473023653030396 0.3613819479942322 128 128 128
0.8481886982917786 -0.12166126817464828 0.5196819305419922 128 128 128
0.9778749942779541 -0.08402852714061737 0.5768963694572449 128 128 128
0.7652279138565063 0.023879995569586754 0.5669695734977722 128 128 128
0.8419212698936462 0.12260641902685165 0.6064202189445496 128 128 128
0.8491171598434448 0.15259286761283875 0.5899514555931091 128 128 128
0.974077045917511 0.4463392496109009 0.7129544615745544 128 128 128
0.9552258253097534 0.25300467014312744 0.7361801266670227 128 128 128
0.9440343976020813 0.19310076534748077 0.7140341401100159 128 128 128
1.0717716217041016 0.4667581617832184 0.9098187685012817 128 128 128
0.5494494438171387 -0.06182389333844185 0.7657252550125122 128 128 128
0.5135319828987122 0.00923188216984272 0.7786058187484741 128 128 128
0.5265939831733704 -0.1181885302066803 0.7638146877288818 128 128 128
0.5079420804977417 -0.129390150308609 0.7890002727508545 128 128 128
0.5415865778923035 -0.12680299580097198 0.8341723084449768 128 128 128
0.4621221125125885 -0.08064147084951401 0.8181930780410767 128 128 128
1.2215622663497925 -0.3769373893737793 0.29039832949638367 128 128 128
1.6316603422164917 -0.5289549827575684 0.33075931668281555 128 128 128
1.5410475730895996 -0.5386149883270264 0.4067225456237793 128 128 128
1.3909083604812622 -0.060959622263908386 0.6395272016525269 128 128 128
1.475093126296997 -0.11874337494373322 0.8397915959358215 128 128 128
1.3570502996444702 -0.012744118459522724 0.8872297406196594 128 128 128
1.4891775846481323 0.5536419749259949 1.1610798835754395 128 128 128
1.0532969236373901 -0.14621229469776154 0.35125279426574707 128 128 128
0.5283688902854919 -0.2910727858543396 0.7897926568984985 128 128 128
0.5382937788963318 -0.304335355758667 0.7964047789573669 128 128 128
0.19263705611228943 -0.40277913212776184 0.6391432881355286 128 128 128
1.7728447914123535 -0.44143998622894287 0.4998152554035187 128 128 128
0.9811616539955139 -0.34254786372184753 0.4478954076766968 128 128 128
1.0068345069885254 -0.24966907501220703 0.5148617029190063 128 128 128
0.8746282458305359 -0.08494776487350464 0.580691933631897 128 128 128
0.9541860818862915 -0.04042675346136093 0.625352144241333 128 128 128
0.7248349189758301 -0.09308981150388718 0.5757076740264893 128 128 128
1.7079890966415405 -0.18407794833183289 0.7523788213729858 128 128 128
0.603807270526886 -0.2199612259864807 0.6759544014930725 128 128 128
0.4900447428226471 -0.0936824232339859 0.8120683431625366 128 128 128
0.49147823452949524 -0.06701362878084183 0.8715198040008545 128 128 128
0.46768876910209656 -0.07590192556381226 0.862930417060852 128 128 128
0.795280396938324 -0.24592626094818115 1.0317920446395874 128 128 128
1.166731595993042 -0.15222223103046417 0.6311177611351013 128 128 128
0.8251777291297913 0.21345502138137817 0.7466289401054382 128 128 128
1.092076063156128 -0.13007064163684845 0.7589936256408691 128 128 128
0.3467845916748047 -0.12312941998243332 0.6153361797332764 128 128 128
1.0213946104049683 -0.18031354248523712 0.7775603532791138 128 128 128
0.4247772991657257 -0.22197437286376953 0.7077763676643372 128 128 128
0.782602071762085 -0.1579892784357071 0.4312516152858734 128 128 128
0.6259893178939819 -0.17533069849014282 0.9020107984542847 128 128 128
0.5801371335983276 -0.23268507421016693 0.8992946743965149 128 128 128
0.658062756061554 -0.11854761838912964 0.5399160385131836 128 128 128
1.3579210042953491 -0.7183294296264648 0.5958880186080933 128 128 128
1.1510660648345947 -0.08085721731185913 0.8177265524864197 128 128 128
1.0740488767623901 0.052802782505750656 0.836887001991272 128 128 128
0.5452413558959961 -0.3156180679798126 0.7876344323158264 128 128 128
0.5545329451560974 -0.27840858697891235 0.8994448781013489 128 128 128
0.37900790572166443 -0.11022939532995224 0.8652936220169067 128 128 128
0.494905561208725 -0.06621295213699341 1.0412819385528564 128 128 128
-0.2303902953863144 -0.5862308144569397 0.4885113835334778 128 128 128
-0.21963247656822205 -0.5781816244125366 0.49741363525390625 128 128 128
0.38444748520851135 -0.32935839891433716 0.725265383720398 128 128 128
0.45605719089508057 -0.2523791491985321 0.6723576188087463 128 128 128
0.3363301455974579 -0.20980915427207947 0.6725879311561584 128 128 128
0.38387250900268555 -0.17235083878040314 0.7345644235610962 128 128 128
0.49843475222587585 -0.309009313583374 0.684912919998169 128 128 128
0.3504295349121094 -0.1855173110961914 0.6876692771911621 128 128 128
-0.09850604832172394 -0.613800585269928 0.4178439974784851 128 128 128
-0.006764439400285482 -0.5724746584892273 0.3578881025314331 128 128 128
0.05612288415431976 -0.6197913289070129 0.3971543610095978 128 128 128
-0.0043011801317334175 -0.5715206265449524 0.3557307720184326 128 128 128
0.05720703303813934 -0.38087624311447144 0.36363837122917175 128 128 128
-0.18888837099075317 -0.5768414735794067 0.4170881509780884 128 128 128
0.05327655375003815 -0.38252726197242737 0.36402589082717896 128 128 128
-0.19450625777244568 -0.5798839330673218 0.417574942111969 128 128 128
-0.006820679176598787 -0.6060619354248047 0.3893827497959137 128 128 128
-0.1081819012761116 -0.6084214448928833 0.3919706344604492 128 128 128
-0.08916296809911728 -0.47181177139282227 0.2759086489677429 128 128 128
-0.08644366264343262 -0.4699152112007141 0.27426403760910034 128 128 128
0.5041143298149109 0.14254462718963623 -0.3658870756626129 128 128 128
0.3599359393119812 0.00010668637696653605 -0.22402024269104004 128 128 128
0.24618121981620789 -0.07707367092370987 -0.3857514560222626 128 128 128
0.2978787124156952 -0.07249536365270615 -0.413756787776947 128 128 128
0.27902933955192566 -0.0560104064643383 -0.3825458586215973 128 128 128
0.34735992550849915 -0.036491647362709045 -0.3744047284126282 128 128 128
0.2555023729801178 -0.10049597918987274 -0.4341084361076355 128 128 128
0.2804839611053467 -0.09567012637853622 -0.30450883507728577 128 128 128
0.28536051511764526 -0.02388596348464489 -0.2117682695388794 128 128 128
0.25066035985946655 -0.04900806397199631 -0.23942747712135315 128 128 128
0.09323715418577194 -0.11408174782991409 -0.285546213388443 128 128 128
-0.03684796392917633 -0.15823037922382355 -0.30082935094833374 128 128 128
-0.038844771683216095 -0.15147891640663147 -0.28979700803756714 128 128 128
-0.021966883912682533 -0.13514643907546997 -0.33365598320961 128 128 128
-0.02673536166548729 -0.13285547494888306 -0.31668370962142944 128 128 128
0.06961307674646378 -0.1369982659816742 -0.4356805086135864 128 128 128
-0.008143925108015537 -0.11055775731801987 -0.3090929090976715 128 128 128
0.034657347947359085 -0.1090942919254303 -0.26249563694000244 128 128 128
0.17833192646503448 -0.14929069578647614 -0.31788793206214905 128 128 128
-0.023810168728232384 -0.16802802681922913 -0.4667726755142212 128 128 128
-0.07672696560621262 -0.15329128503799438 -0.29285141825675964 128 128 128
-0.028445808216929436 -0.14267456531524658 -0.46444374322891235 128 128 128
0.20085981488227844 -0.11130489408969879 -0.15404191613197327 128 128 128
-0.14388029277324677 -0.14192354679107666 -0.34084028005599976 128 128 128
0.1909680962562561 -0.16089597344398499 -0.1669955551624298 128 128 128
-0.026268083602190018 -0.13690662384033203 -0.3118043839931488 128 128 128
0.03441718593239784 -0.1809820979833603 -0.36309006810188293 128 128 128
0.0001665462041273713 -0.10159748792648315 -0.32094529271125793 128 128 128
0.03425576537847519 -0.11333107203245163 -0.25643545389175415 128 128 128
0.15285587310791016 -0.17353302240371704 -0.28146204352378845 128 128 128
-0.05820361152291298 -0.12441897392272949 -0.33446332812309265 128 128 128
0.06416942924261093 -0.21446593105793 -0.4117644429206848 128 128 128
-0.14507222175598145 -0.14575476944446564 -0.33468225598335266 128 128 128
-0.07292455434799194 -0.11138448864221573 -0.39349886775016785 128 128 128
-0.3726322054862976 -0.5810568928718567 0.2775731682777405 128 128 128
-0.4748251140117645 -0.3632384240627289 -0.127470463514328 128 128 128
-0.41792142391204834 -0.357048898935318 -0.057552359998226166 128 128 128
-0.22091740369796753 -0.09760389477014542 -0.09105492383241653 128 128 128
-0.20058996975421906 -0.15059426426887512 -0.13513648509979248 128 128 128
-0.21128419041633606 -0.1441671997308731 -0.08384803682565689 128 128 128
-0.20165623724460602 -0.16260157525539398 -0.06306386739015579 128 128 128
-0.14278419315814972 -0.08504163473844528 -0.06276873499155045 128 128 128
-0.14246615767478943 -0.09241767227649689 -0.0682641938328743 128 128 128
-0.1547296941280365 -0.12750370800495148 -0.11017590016126633 128 128 128
-0.42726781964302063 -0.32940608263015747 0.03363339602947235 128 128 128
-0.42541757225990295 -0.3278079330921173 0.045081302523612976 128 128 128
-0.17684325575828552 -0.10660551488399506 -0.13169711828231812 128 128 128
-0.4121975004673004 -0.3531965911388397 0.0474855937063694 128 128 128
-0.4855230450630188 -0.3390665650367737 -0.17294496297836304 128 128 128
-0.42194753885269165 -0.33666935563087463 -0.08984022587537766 128 128 128
-0.2171415239572525 -0.08456587791442871 -0.10393496602773666 128 128 128
-0.1908976137638092 -0.12397908419370651 -0.16446182131767273 128 128 128
-0.18067219853401184 -0.10489165037870407 -0.11763257533311844 128 128 128
-0.13103444874286652 -0.06680417060852051 -0.09037532657384872 128 128 128
-0.14957372844219208 -0.11756451427936554 -0.12192659825086594 128 128 128
-0.45495301485061646 -0.3083195984363556 0.0828072801232338 128 128 128
-0.4317159950733185 -0.3086051940917969 0.010834351181983948 128 128 128
-0.16692402958869934 -0.0810161754488945 -0.15720024704933167 128 128 128
-0.15443257987499237 -0.10305685549974442 -0.11140745133161545 128 128 128
-0.35058748722076416 -0.048162560909986496 -0.11235571652650833 128 128 128
-0.4193798899650574 -0.3129822611808777 0.0011328458786010742 128 128 128
-0.4566413164138794 -0.3064844310283661 0.08932039886713028 128 128 128
-0.5065694451332092 -0.35778042674064636 0.029468145221471786 128 128 128
-0.3184579014778137 -0.48496922850608826 0.10917153209447861 128 128 128
-0.4284266233444214 -0.32369664311408997 0.02706342563033104 128 128 128
-0.4529474675655365 -0.3201596736907959 0.0988306999206543 128 128 128
-0.5375077724456787 -0.35907939076423645 0.05087248980998993 128 128 128
-0.35213717818260193 -0.6035692095756531 0.29003122448921204 128 128 128
-0.5498793721199036 -0.3491498529911041 0.04645412787795067 128 128 128
-0.5619103908538818 -0.34841224551200867 0.03173559531569481 128 128 128
-0.3015179932117462 -0.4485248327255249 0.050296857953071594 128 128 128
-0.4287225008010864 -0.3230597674846649 0.02534521371126175 128 128 128
-0.4539168179035187 -0.3180731236934662 0.09682651609182358 128 128 128
-0.542448103427887 -0.35226646065711975 0.04432578757405281 128 128 128
-0.5492166876792908 -0.35053756833076477 0.048448771238327026 128 128 128
-0.40229880809783936 -0.602358877658844 0.3030555248260498 128 128 128
-0.37977278232574463 -0.5803923606872559 0.2784344255924225 128 128 128
-0.40229880809783936 -0.602358877658844 0.3030555248260498 128 128 128
-0.37977278232574463 -0.5803923606872559 0.2784344255924225 128 128 128
-0.40229880809783936 -0.602358877658844 0.3030555248260498 128 128 128
-0.37977278232574463 -0.5803923606872559 0.2784344255924225 128 128 128
